# .PCD v0.7 - Point Cloud Data file format
VERSION 0.7
FIELDS x y z confidence rgb
SIZE 4 4 4 4 4
TYPE F F F F U
COUNT 1 1 1 1 1
WIDTH 1044
HEIGHT 1
VIEWPOINT 0 0 0 1 0 0 0
POINTS 1044
DATA ascii
-0.016282 0.082604505 0.065086 1 16777215
-0.016987 0.081694506 0.065254003 1 16777215
-0.017519001 0.080791503 0.065416999 1 16777215
-0.017986 0.079862505 0.065584004 1 16777215
-0.018451001 0.078972504 0.065745004 1 16777215
-0.018855002 0.078053504 0.065912001 1 16777215
-0.019098002 0.077262506 0.066044003 1 16777215
-0.019431002 0.076330505 0.066206999 1 16777215
-0.019702002 0.075370505 0.066374004 1 16777215
-0.019973002 0.074425504 0.066540003 1 16777215
-0.020178001 0.073493503 0.066710003 1 16777215
-0.020189002 0.072808504 0.066833004 1 16777215
-0.019778002 0.071858503 0.066987 1 16777215
-0.019064002 0.071091503 0.067111 1 16777215
-0.018685002 0.070677504 0.067182004 1 16777215
-0.018196002 0.069607504 0.067366004 1 16777215
-0.018754002 0.068477504 0.067593001 1 16777215
-0.019337002 0.067472503 0.067757003 1 16777215
-0.020109002 0.066429503 0.067910001 1 16777215
-0.0066070007 0.082334504 0.064957 1 16777215
-0.0068310006 0.082452506 0.064941004 1 16777215
-0.0076060006 0.082862504 0.064992003 1 16777215
-0.0085350005 0.083239503 0.064842001 1 16777215
-0.0093880007 0.083596505 0.064794004 1 16777215
-0.009083 0.083473504 0.065522 1 16777215
-0.0095890006 0.083522506 0.065524004 1 16777215
-0.010634 0.083675504 0.065508001 1 16777215
-0.011626001 0.083666503 0.065534003 1 16777215
-0.012610001 0.083524503 0.065572999 1 16777215
-0.013291 0.083390504 0.065607004 1 16777215
-0.014245001 0.083074503 0.065681003 1 16777215
-0.015111 0.082642503 0.065765999 1 16777215
-0.015902001 0.081892505 0.065912001 1 16777215
-0.016465999 0.081204504 0.066039003 1 16777215
-0.016933002 0.080410503 0.066179 1 16777215
-0.017529 0.079367504 0.066369005 1 16777215
-0.017870001 0.078664504 0.066494003 1 16777215
-0.018157002 0.078054503 0.066608004 1 16777215
-0.018490002 0.077125505 0.066769004 1 16777215
-0.018754002 0.076174505 0.066914 1 16777215
-0.019066002 0.075242504 0.067097001 1 16777215
-0.019308001 0.074274503 0.067267001 1 16777215
-0.019452002 0.073272504 0.067440003 1 16777215
-0.019202001 0.072248504 0.067616001 1 16777215
-0.018935002 0.071835503 0.067678005 1 16777215
-0.018281002 0.070938505 0.067816004 1 16777215
-0.017917 0.069693506 0.06814 1 16777215
-0.018935002 0.067701504 0.068516999 1 16777215
-0.0064360006 0.082582504 0.065628 1 16777215
-0.0069940006 0.082816504 0.065527 1 16777215
-0.007712 0.083207503 0.065671004 1 16777215
-0.0083500007 0.083358504 0.065527 1 16777215
-0.0080310004 0.083639503 0.066192999 1 16777215
-0.0088380007 0.083583504 0.066206999 1 16777215
-0.0095319999 0.083426505 0.066128999 1 16777215
-0.010541 0.083307505 0.066282004 1 16777215
-0.011541001 0.083211504 0.066324003 1 16777215
-0.012037001 0.083129503 0.066344 1 16777215
-0.013033 0.082884505 0.066399001 1 16777215
-0.013935001 0.082518503 0.066480003 1 16777215
-0.014598 0.082150504 0.066553004 1 16777215
-0.015151001 0.081681505 0.066640005 1 16777215
-0.015755001 0.080906503 0.066785 1 16777215
-0.016302001 0.080073506 0.066937 1 16777215
-0.016821999 0.079224505 0.067088 1 16777215
-0.017037999 0.078796506 0.067166001 1 16777215
-0.017429002 0.077901505 0.067332 1 16777215
-0.017746001 0.076959506 0.067497 1 16777215
-0.018033002 0.076005504 0.067656003 1 16777215
-0.018348001 0.075068504 0.067821003 1 16777215
-0.018614002 0.074122503 0.067988001 1 16777215
-0.018685002 0.073112503 0.068158001 1 16777215
-0.018242002 0.072049506 0.068333 1 16777215
-0.017777 0.071114503 0.068494 1 16777215
-0.017545 0.070168503 0.068723001 1 16777215
-0.017777 0.069166504 0.069253005 1 16777215
-0.018459 0.067816503 0.069851004 1 16777215
-0.0062420005 0.082835503 0.066298001 1 16777215
-0.0065810001 0.083009504 0.066259004 1 16777215
-0.0072490005 0.083352506 0.066223003 1 16777215
-0.0075670006 0.083946504 0.066863 1 16777215
-0.0084040007 0.083831504 0.066875003 1 16777215
-0.0094260005 0.083242506 0.066898003 1 16777215
-0.010449001 0.082835503 0.067065001 1 16777215
-0.011433001 0.082682505 0.067114003 1 16777215
-0.012421 0.082420506 0.067173004 1 16777215
-0.012688001 0.082306504 0.067198999 1 16777215
-0.01315 0.082049504 0.067251004 1 16777215
-0.014005001 0.081526503 0.067357004 1 16777215
-0.014762 0.080918506 0.067474 1 16777215
-0.015120001 0.080555506 0.067541003 1 16777215
-0.015714001 0.079761505 0.067685001 1 16777215
-0.016181 0.078885503 0.067846 1 16777215
-0.016320001 0.078623503 0.067894004 1 16777215
-0.016770002 0.077712506 0.068057999 1 16777215
-0.017078999 0.076799504 0.068227001 1 16777215
-0.017281 0.075830504 0.068381004 1 16777215
-0.017627001 0.074907504 0.068544 1 16777215
-0.017861001 0.073933505 0.068714 1 16777215
-0.017831001 0.072896503 0.068886004 1 16777215
-0.017512999 0.072060503 0.069019005 1 16777215
-0.017235 0.071127504 0.069171004 1 16777215
-0.017367002 0.070131503 0.069277003 1 16777215
-0.001565 -0.046664502 -0.0038350001 1 16777215
-0.0014909999 -0.047732502 -0.0042420002 1 16777215
-0.0073580006 0.084257506 0.067359 1 16777215
-0.0079080006 0.084345505 0.067552 1 16777215
-0.0087799998 0.083478503 0.067644 1 16777215
-0.0095890006 0.082532503 0.067814 1 16777215
-0.010356001 0.081985503 0.067917004 1 16777215
-0.011293001 0.081654504 0.067995004 1 16777215
-0.012236 0.081301503 0.068071 1 16777215
-0.01253 0.081200503 0.068089999 1 16777215
-0.013538 0.080713503 0.068195 1 16777215
-0.013997001 0.080391504 0.068259001 1 16777215
-0.014903001 0.079574503 0.068438999 1 16777215
-0.015445 0.078710504 0.068581 1 16777215
-0.015585001 0.078456506 0.068622001 1 16777215
-0.016026001 0.077567503 0.068769 1 16777215
-0.016302999 0.076619506 0.068945006 1 16777215
-0.016522001 0.075637504 0.069124006 1 16777215
-0.016791001 0.074691504 0.069280006 1 16777215
-0.016964 0.073686503 0.069450006 1 16777215
-0.016924001 0.072458506 0.069643006 1 16777215
-0.016855001 0.071477503 0.069799006 1 16777215
-0.017142002 0.070163503 0.069980003 1 16777215
-0.017599002 0.068804502 0.070338003 1 16777215
-0.0014140001 -0.048814502 -0.0047470005 1 16777215
-0.0077809999 0.084925503 0.068220004 1 16777215
-0.0083190007 0.084305502 0.068211004 1 16777215
-0.0089969998 0.082849503 0.068461999 1 16777215
-0.0096960003 0.081714503 0.068744004 1 16777215
-0.010720001 0.080951504 0.068978004 1 16777215
-0.011874001 0.080653504 0.068810999 1 16777215
-0.012711001 0.080249503 0.068841003 1 16777215
-0.013571001 0.079766504 0.068987004 1 16777215
-0.014237001 0.078922503 0.069312006 1 16777215
-0.014754 0.078231506 0.069415003 1 16777215
-0.015226 0.077391505 0.069516003 1 16777215
-0.015623 0.076216504 0.069764003 1 16777215
-0.015786 0.075215504 0.069955006 1 16777215
-0.015841 0.074715503 0.069989003 1 16777215
-0.015907999 0.074439503 0.070048004 1 16777215
-0.016088001 0.073459506 0.070217006 1 16777215
-0.016499002 0.072386503 0.070512004 1 16777215
-0.016824 0.071325503 0.070480004 1 16777215
-0.017018002 0.070167504 0.070825003 1 16777215
-0.017181002 0.069382504 0.070724003 1 16777215
-0.017494999 0.068794504 0.070963003 1 16777215
-0.00032600015 -0.063678503 -0.011875001 1 16777215
0.0029389998 -0.067500502 -0.0095510008 1 16777215
-0.0021230001 -0.060654502 -0.0076090004 1 16777215
0.0050690002 -0.068033502 -0.0022600004 1 16777215
-0.0081320005 0.085173503 0.068657003 1 16777215
-0.0084040007 0.083845504 0.069079004 1 16777215
-0.0088530006 0.082123503 0.069553003 1 16777215
-0.0099760005 0.080924504 0.069805004 1 16777215
-0.010697001 0.080529504 0.069764003 1 16777215
-0.011495001 0.080254503 0.069828004 1 16777215
-0.012556001 0.079811506 0.069704004 1 16777215
-0.013376 0.079243504 0.069873005 1 16777215
-0.013664001 0.078586504 0.069975004 1 16777215
-0.014113001 0.077690504 0.070136003 1 16777215
-0.014624001 0.076873504 0.070305005 1 16777215
-0.015329001 0.073643506 0.070843004 1 16777215
-0.016088001 0.072717503 0.071045004 1 16777215
-0.016621999 0.071835503 0.071218006 1 16777215
-0.017049 0.070727505 0.071445003 1 16777215
-0.017498001 0.069386505 0.071495004 1 16777215
-0.018397 0.068027504 0.071275003 1 16777215
-0.015593001 0.072588503 0.071734004 1 16777215
-0.016406 0.072170503 0.071829006 1 16777215
-0.017002001 0.071384504 0.072092004 1 16777215
-0.017744001 0.070158504 0.072639003 1 16777215
-0.018401999 0.068789504 0.072579004 1 16777215
-0.0064869998 -0.046800502 -0.0028090002 1 16777215
-0.0078220004 0.085663505 0.069355004 1 16777215
-0.0080940006 0.085356504 0.069358006 1 16777215
-0.0081369998 0.084484503 0.069704004 1 16777215
-0.0078530004 0.083173506 0.069625005 1 16777215
0.003459 -0.064652503 -0.0028560003 1 16777215
0.003881 -0.067580499 -0.0062180003 1 16777215
-0.01051 0.080598503 0.070297003 1 16777215
-0.011030001 0.080391504 0.070287004 1 16777215
-0.011541001 0.080272503 0.070655003 1 16777215
-0.012353 0.080006503 0.070737004 1 16777215
-0.012990001 0.079540506 0.070545003 1 16777215
-0.013576 0.078485504 0.070480004 1 16777215
-0.016288001 0.072206505 0.072404005 1 16777215
-0.016869001 0.071852505 0.072579004 1 16777215
-0.017450001 0.071158506 0.072960004 1 16777215
-0.018041 0.070402503 0.073558003 1 16777215
-0.0064099999 -0.047881503 -0.0033130003 1 16777215
-0.0032430002 -0.0165915 -0.012077001 1 16777215
-0.020065002 0.066663504 0.073691003 1 16777215
-0.0013410002 -0.049875502 -0.0050910003 1 16777215
-0.0012619998 -0.050979502 -0.0057500005 1 16777215
-0.0077450005 0.085577503 0.069970004 1 16777215
-0.0080530001 0.085035503 0.069914006 1 16777215
-0.0079920003 0.084323503 0.070636004 1 16777215
-0.0082769999 0.082375504 0.070419006 1 16777215
-0.0090460004 0.081484504 0.070618004 1 16777215
-0.0099840006 0.080841504 0.070837006 1 16777215
-0.010865 0.080524504 0.070925005 1 16777215
-0.011743001 0.080405504 0.071633004 1 16777215
-0.012695001 0.080166504 0.071697004 1 16777215
-0.012912001 0.079826504 0.071270004 1 16777215
-0.013005001 0.079431504 0.071119003 1 16777215
-0.0011780001 -0.052091502 -0.0064620003 1 16777215
-0.0084040007 0.082315505 0.071376003 1 16777215
-0.0095120007 0.081290506 0.071844004 1 16777215
-0.010612001 0.080768503 0.072046004 1 16777215
-0.013005001 0.080042504 0.071807005 1 16777215
-0.012754 0.079799503 0.071831003 1 16777215
-0.016755 0.071976505 0.072960004 1 16777215
-0.017273001 0.071656503 0.073300004 1 16777215
-0.017746001 0.071036503 0.073649004 1 16777215
-0.018203001 0.070267506 0.074141003 1 16777215
-0.0063340003 -0.048958503 -0.0037850002 1 16777215
-0.0031880001 -0.0175655 -0.011837001 1 16777215
-0.0031329999 -0.0185415 -0.011612001 1 16777215
-0.020015001 0.067109503 0.074278004 1 16777215
-0.020238001 0.066423506 0.074305005 1 16777215
-0.0010890001 -0.053241502 -0.0074230004 1 16777215
-0.0084790001 0.084074505 0.072781004 1 16777215
-0.0084020002 0.082550503 0.072046004 1 16777215
-0.0089770006 0.081916504 0.072363004 1 16777215
-0.013044001 0.080059506 0.071991004 1 16777215
-0.0062500006 -0.050067503 -0.0044210004 1 16777215
-0.0061730007 -0.051152501 -0.0049790004 1 16777215
-0.016915001 0.071279503 0.073952004 1 16777215
-0.016902 0.071494505 0.073750004 1 16777215
-0.017007999 0.071783505 0.073456004 1 16777215
-0.017336 0.071683504 0.073636003 1 16777215
-0.017537002 0.071431503 0.073750004 1 16777215
-0.017769001 0.070861503 0.074113004 1 16777215
-0.0096169999 0.082766503 0.074365005 1 16777215
-0.0060870005 -0.052297503 -0.0059270002 1 16777215
-0.0037790006 -0.0075805001 -0.012480001 1 16777215
-0.0036550006 -0.0096155005 -0.012635001 1 16777215
-0.017266002 0.070958503 0.074149005 1 16777215
-0.017343 0.071448505 0.073861003 1 16777215
-0.020125002 0.067697503 0.075046003 1 16777215
-0.0029660007 -0.021441501 -0.010760001 1 16777215
-0.00098800007 -0.054442503 -0.0087480005 1 16777215
-0.0037170006 -0.0086045004 -0.012604001 1 16777215
-0.0035930006 -0.010634501 -0.012712001 1 16777215
-0.0035310006 -0.0116505 -0.012743001 1 16777215
-0.0034739999 -0.0126425 -0.012658001 1 16777215
-0.0030200006 -0.0204775 -0.011068 1 16777215
-0.002909 -0.022402501 -0.010464001 1 16777215
-0.0023520002 -0.034365501 -0.0024730004 1 16777215
-0.00088999979 -0.055639502 -0.010029 1 16777215
-0.003575 0.0415635 -0.076187998 1 16777215
-0.0033530006 0.040536501 -0.076334998 1 16777215
-0.0034130001 -0.0136385 -0.012564001 1 16777215
-0.0033530006 -0.0146265 -0.012433001 1 16777215
-0.0032980004 -0.0156065 -0.012271001 1 16777215
-0.0023039998 -0.035290502 -0.0019410001 1 16777215
-0.0006769998 -0.058103502 -0.013092001 1 16777215
0.029746 0.019024499 -0.075378001 1 16777215
0.030483 0.017965499 -0.075392999 1 16777215
0.032287002 -0.0146615 0.02547 1 16777215
0.032177001 -0.0136745 0.025353 1 16777215
0.032060999 -0.0126895 0.025251999 1 16777215
0.035829 -0.049142502 0.031922001 1 16777215
0.035663001 -0.047124501 0.032256 1 16777215
0.035302002 -0.043100502 0.032751001 1 16777215
0.035208002 -0.042099502 0.032827999 1 16777215
0.035108 -0.041100502 0.032845002 1 16777215
0.035 -0.0401095 0.032788001 1 16777215
0.034897 -0.0391155 0.032767002 1 16777215
0.034783002 -0.038124502 0.032659002 1 16777215
0.034667 -0.0371405 0.032533001 1 16777215
0.034549002 -0.0361505 0.032427002 1 16777215
0.034292001 -0.034197502 0.031906001 1 16777215
0.031963002 -0.0176815 0.026167002 1 16777215
0.031855002 -0.0166905 0.026119001 1 16777215
0.031746 -0.0156985 0.026012 1 16777215
0.031637002 -0.0147065 0.025963001 1 16777215
0.031525999 -0.0137165 0.025865 1 16777215
0.031411 -0.0127275 0.025741 1 16777215
0.031295002 -0.0117445 0.025625002 1 16777215
0.031173002 -0.0107675 0.025455002 1 16777215
0.031057 -0.0097735003 0.025338002 1 16777215
0.030173 -0.0029245 0.023650002 1 16777215
0.035410002 -0.052235503 0.031605002 1 16777215
0.03534 -0.051214501 0.031908002 1 16777215
0.035263002 -0.050201502 0.032163002 1 16777215
0.035186 -0.049181502 0.032442 1 16777215
0.035100002 -0.048171502 0.032634001 1 16777215
0.035015002 -0.047163501 0.032760002 1 16777215
0.034929 -0.046157502 0.032906 1 16777215
0.034841999 -0.045151502 0.033046 1 16777215
0.034751002 -0.044143502 0.033176001 1 16777215
0.034659002 -0.043135501 0.03331 1 16777215
0.034563001 -0.0421375 0.033348002 1 16777215
0.034457002 -0.041144501 0.033318002 1 16777215
0.034357 -0.040145501 0.033353001 1 16777215
0.034254 -0.039148502 0.033318002 1 16777215
0.034140002 -0.038156502 0.033225 1 16777215
0.034024 -0.037173502 0.033084001 1 16777215
0.033907 -0.0361875 0.032953002 1 16777215
0.033782002 -0.035210501 0.032703999 1 16777215
0.033652 -0.034226499 0.032510001 1 16777215
0.033520002 -0.033253502 0.032193001 1 16777215
0.033381 -0.0322855 0.031829 1 16777215
0.031536002 -0.019702502 0.026826002 1 16777215
0.031427 -0.0187115 0.026733 1 16777215
0.031312 -0.017724501 0.026624002 1 16777215
0.031204 -0.0167285 0.026608001 1 16777215
0.031095002 -0.015739501 0.026485 1 16777215
0.030986 -0.0147475 0.026436001 1 16777215
0.030877002 -0.0137585 0.026369002 1 16777215
0.030761 -0.012769501 0.026245002 1 16777215
0.030644 -0.0117825 0.026103001 1 16777215
0.030526999 -0.0108025 0.025943 1 16777215
0.030404001 -0.0098205004 0.025740001 1 16777215
0.030287001 -0.0088405004 0.02561 1 16777215
0.030164 -0.0078525003 0.025405001 1 16777215
0.030034002 -0.0068775001 0.025166001 1 16777215
0.029910002 -0.0058925003 0.024982002 1 16777215
0.029785 -0.0049165003 0.024734002 1 16777215
0.029655002 -0.0039365003 0.024468001 1 16777215
0.029531002 -0.0029565003 0.024273999 1 16777215
0.029403999 -0.0019795001 0.023991 1 16777215
0.029274002 -0.0010035001 0.023735002 1 16777215
0.029143002 -2.7500093e-05 0.023469999 1 16777215
0.034953002 -0.055347502 0.030997999 1 16777215
0.034891002 -0.054320503 0.03142 1 16777215
0.034828 -0.053294502 0.031773999 1 16777215
0.034759 -0.052277502 0.032078002 1 16777215
0.034689002 -0.051253501 0.032411002 1 16777215
0.034612 -0.050240502 0.032651 1 16777215
0.034533001 -0.049227502 0.032873999 1 16777215
0.034455001 -0.048212502 0.033108 1 16777215
0.034368999 -0.047201503 0.033298999 1 16777215
0.034279 -0.046193503 0.033456001 1 16777215
0.034194 -0.045187503 0.033581 1 16777215
0.034101002 -0.044180501 0.033711001 1 16777215
0.034008 -0.043178502 0.03379 1 16777215
0.033914 -0.0421765 0.033852 1 16777215
0.033814002 -0.041178502 0.033872999 1 16777215
0.033706002 -0.040184502 0.033840999 1 16777215
0.033604 -0.039187502 0.033810999 1 16777215
0.033489 -0.0382015 0.033713002 1 16777215
0.033379 -0.0372115 0.033619002 1 16777215
0.033257 -0.036227502 0.033448 1 16777215
0.033139002 -0.035244502 0.033271 1 16777215
0.033009 -0.0342605 0.033062 1 16777215
0.032883 -0.0332845 0.032806002 1 16777215
0.032744002 -0.0323155 0.032427002 1 16777215
0.032604001 -0.031347502 0.032094002 1 16777215
0.032296002 -0.0294265 0.031148002 1 16777215
0.030891001 -0.0197405 0.027350001 1 16777215
0.030777 -0.018748499 0.027252 1 16777215
0.030661002 -0.017764501 0.027097002 1 16777215
0.030553002 -0.016771501 0.027065001 1 16777215
0.030443002 -0.015779501 0.026981 1 16777215
0.030329 -0.0147865 0.026893001 1 16777215
0.030219 -0.0138015 0.026779 1 16777215
0.030104 -0.0128145 0.026670001 1 16777215
0.029988002 -0.0118265 0.026555002 1 16777215
0.029871002 -0.0108435 0.026415002 1 16777215
0.029752001 -0.0098655 0.026225999 1 16777215
0.029631 -0.0088795004 0.026082002 1 16777215
0.029511999 -0.0078995004 0.025888 1 16777215
0.029383 -0.0069165002 0.025669999 1 16777215
0.029259 -0.0059345001 0.025462002 1 16777215
0.029135 -0.0049565001 0.025207002 1 16777215
0.029008999 -0.0039765001 0.025003001 1 16777215
0.02888 -0.0029945001 0.024780001 1 16777215
0.028756 -0.0020174999 0.024556 1 16777215
0.028624002 -0.0010414999 0.024261001 1 16777215
0.028500002 -6.1499886e-05 0.024037 1 16777215
0.028376002 0.00091850013 0.023812 1 16777215
0.028257001 0.0019014999 0.023626 1 16777215
0.028140999 0.0028895 0.023526002 1 16777215
0.028022001 0.0038735 0.023340002 1 16777215
0.034357 -0.056419503 0.031008001 1 16777215
0.034301002 -0.055391502 0.03142 1 16777215
0.03424 -0.054366503 0.031821001 1 16777215
0.034171 -0.053344503 0.032171 1 16777215
0.034106001 -0.052320503 0.03252 1 16777215
0.034035999 -0.051298503 0.032837 1 16777215
0.033959001 -0.050283503 0.033092 1 16777215
0.033883002 -0.049266502 0.033363 1 16777215
0.033797 -0.048260503 0.033503 1 16777215
0.033713002 -0.047247503 0.033712 1 16777215
0.033629 -0.046237502 0.033898 1 16777215
0.033536002 -0.045231503 0.034012999 1 16777215
0.033449002 -0.044225503 0.034123 1 16777215
0.033356 -0.043222502 0.034216002 1 16777215
0.033257 -0.042223502 0.034267001 1 16777215
0.033156 -0.041224502 0.034283999 1 16777215
0.033054002 -0.040225502 0.034267999 1 16777215
0.032954 -0.039231502 0.034283999 1 16777215
0.032845002 -0.038239501 0.034221001 1 16777215
0.032730002 -0.0372505 0.034108002 1 16777215
0.032614 -0.036263499 0.033983 1 16777215
0.03249 -0.035281502 0.03379 1 16777215
0.032365002 -0.0342995 0.033565 1 16777215
0.032233 -0.033327501 0.033268999 1 16777215
0.032093 -0.032360502 0.032889001 1 16777215
0.031955 -0.0313855 0.032582 1 16777215
0.031812999 -0.0304185 0.032156002 1 16777215
0.031661 -0.029457502 0.031706002 1 16777215
0.031498 -0.028504502 0.031133 1 16777215
0.030739002 -0.0236995 0.028783999 1 16777215
0.030482002 -0.0217475 0.028173 1 16777215
0.030358002 -0.020767501 0.027954001 1 16777215
0.030236002 -0.0197825 0.027794 1 16777215
0.030124001 -0.018795501 0.027678002 1 16777215
0.030007999 -0.0178075 0.027553 1 16777215
0.029895 -0.016817501 0.027491 1 16777215
0.029786002 -0.0158245 0.027396999 1 16777215
0.029677 -0.014834501 0.027329002 1 16777215
0.029561002 -0.013850501 0.02719 1 16777215
0.029445 -0.0128595 0.027096 1 16777215
0.029329002 -0.011866501 0.026950002 1 16777215
0.029213 -0.0108935 0.026810002 1 16777215
0.029096 -0.0099114999 0.026668999 1 16777215
0.028978001 -0.0089215003 0.026507001 1 16777215
0.028856002 -0.0079385005 0.026319001 1 16777215
0.028733 -0.0069575002 0.026142001 1 16777215
0.028609 -0.0059755002 0.025919002 1 16777215
0.028484002 -0.0049975002 0.025683999 1 16777215
0.028362 -0.0040155002 0.025506999 1 16777215
0.028235 -0.0030335002 0.025284 1 16777215
0.028110001 -0.0020535002 0.025060002 1 16777215
0.027983001 -0.0010764999 0.024810001 1 16777215
0.027855001 -0.00010049995 0.024541002 1 16777215
0.027735 0.00088350009 0.024397999 1 16777215
0.027618 0.0018694997 0.024238002 1 16777215
0.027497999 0.0028545 0.024066001 1 16777215
0.027382001 0.0038385 0.023921002 1 16777215
0.027272999 0.0048285006 0.023858 1 16777215
0.027166001 0.0058265002 0.023841999 1 16777215
0.027068 0.0068265004 0.023889001 1 16777215
0.026976001 0.0078314999 0.023983002 1 16777215
0.026755001 0.0108925 0.024886001 1 16777215
0.026696 0.0119215 0.025314 1 16777215
0.026642 0.012954501 0.025832999 1 16777215
0.026603 0.0139915 0.026365999 1 16777215
0.033784002 -0.058546502 0.030242 1 16777215
0.033745002 -0.057506502 0.030850999 1 16777215
0.033698 -0.056465503 0.031403001 1 16777215
0.033642001 -0.055439502 0.031815 1 16777215
0.033580001 -0.054412503 0.032214999 1 16777215
0.033512 -0.053390503 0.032579999 1 16777215
0.033443 -0.052369501 0.032899 1 16777215
0.033373002 -0.051344503 0.033231001 1 16777215
0.033295002 -0.050332502 0.033470999 1 16777215
0.033218 -0.049316503 0.033725001 1 16777215
0.033141002 -0.048304502 0.033945002 1 16777215
0.033055 -0.047291502 0.034136999 1 16777215
0.032974999 -0.046283502 0.034309 1 16777215
0.032885 -0.045273501 0.034455001 1 16777215
0.032792002 -0.044269502 0.034549002 1 16777215
0.032698002 -0.043268502 0.034627002 1 16777215
0.032602999 -0.042267501 0.034689002 1 16777215
0.032501999 -0.041270502 0.034708999 1 16777215
0.032396 -0.040271502 0.034678001 1 16777215
0.032288 -0.0392805 0.034627002 1 16777215
0.03218 -0.0382885 0.03458 1 16777215
0.032069001 -0.037301499 0.034487002 1 16777215
0.031955 -0.036310501 0.034387 1 16777215
0.031835999 -0.035327502 0.034215 1 16777215
0.031707 -0.0343455 0.033980999 1 16777215
0.031582002 -0.0333695 0.033741001 1 16777215
0.031444002 -0.0323935 0.033408001 1 16777215
0.031305 -0.0314245 0.033070002 1 16777215
0.031165 -0.030456502 0.032675002 1 16777215
0.031015001 -0.029496502 0.032201 1 16777215
0.030859999 -0.0285405 0.031722002 1 16777215
0.030700002 -0.027581502 0.031195 1 16777215
0.030545 -0.026624501 0.030629002 1 16777215
0.030397002 -0.0256625 0.030196 1 16777215
0.030243002 -0.024699502 0.029731002 1 16777215
0.030096002 -0.023737501 0.029305 1 16777215
0.029962 -0.0227625 0.028987002 1 16777215
0.029830001 -0.021790501 0.028631002 1 16777215
0.029709 -0.0208055 0.028468002 1 16777215
0.029585 -0.0198255 0.028266001 1 16777215
0.029469002 -0.0188375 0.028135002 1 16777215
0.029352002 -0.0178525 0.027995002 1 16777215
0.029242001 -0.0168625 0.027902 1 16777215
0.029127002 -0.015874501 0.027791001 1 16777215
0.029018 -0.0148765 0.027724002 1 16777215
0.028903 -0.0138935 0.027630001 1 16777215
0.028787002 -0.0129075 0.027488999 1 16777215
0.028671 -0.0119185 0.027376 1 16777215
0.028555002 -0.0109395 0.027235001 1 16777215
0.028437 -0.0099574998 0.027058002 1 16777215
0.028319001 -0.0089715002 0.026918001 1 16777215
0.028196 -0.0079905 0.026725002 1 16777215
0.028072 -0.0070055001 0.026507001 1 16777215
0.027951 -0.0060215001 0.026329 1 16777215
0.027828 -0.0050415001 0.026121002 1 16777215
0.027708001 -0.0040565003 0.025963999 1 16777215
0.027582999 -0.0030765003 0.025741 1 16777215
0.027458999 -0.0020965002 0.025520999 1 16777215
0.027329002 -0.0011195 0.025267001 1 16777215
0.027209001 -0.00013549998 0.025106002 1 16777215
0.027085001 0.00084450003 0.024889 1 16777215
0.026975 0.0018325001 0.024788 1 16777215
0.026854999 0.0028184997 0.024631999 1 16777215
0.026743 0.0038075 0.024548002 1 16777215
0.026631001 0.0047975006 0.024470001 1 16777215
0.026521999 0.0057875002 0.024362002 1 16777215
0.026426001 0.0067924997 0.024459999 1 16777215
0.026337001 0.0077955006 0.024571002 1 16777215
0.026263 0.0088175004 0.024881002 1 16777215
0.026193 0.0098325005 0.025173999 1 16777215
0.026126999 0.0108625 0.025563002 1 16777215
0.026070001 0.0118985 0.026041999 1 16777215
0.026022 0.0129295 0.026523001 1 16777215
0.025981002 0.0139755 0.027151 1 16777215
0.025946001 0.0150225 0.027817 1 16777215
0.033132002 -0.058587503 0.030699 1 16777215
0.033086002 -0.057554502 0.031241 1 16777215
0.033038002 -0.056518503 0.031750999 1 16777215
0.032977 -0.055489503 0.032163002 1 16777215
0.032916002 -0.054465503 0.032574002 1 16777215
0.032846 -0.053441502 0.032912999 1 16777215
0.032776002 -0.052421503 0.033247001 1 16777215
0.032707002 -0.051400501 0.033548001 1 16777215
0.032637 -0.050382502 0.033865001 1 16777215
0.032556999 -0.049367502 0.034069002 1 16777215
0.032474 -0.048354503 0.034277 1 16777215
0.032393999 -0.047342502 0.034485001 1 16777215
0.032310002 -0.046334501 0.034657001 1 16777215
0.032219 -0.045323502 0.034818001 1 16777215
0.032131001 -0.044319503 0.034928001 1 16777215
0.032033 -0.043321501 0.034975 1 16777215
0.031938002 -0.0423165 0.035037 1 16777215
0.031839002 -0.0413175 0.035084002 1 16777215
0.031738002 -0.0403185 0.035099 1 16777215
0.031622 -0.0393335 0.034991 1 16777215
0.031514 -0.038335502 0.034944002 1 16777215
0.031405002 -0.037348501 0.034880001 1 16777215
0.031289 -0.0363595 0.034735002 1 16777215
0.031173002 -0.035375502 0.034595001 1 16777215
0.031049002 -0.034392502 0.034402002 1 16777215
0.030917 -0.033416502 0.0341 1 16777215
0.030786 -0.032444499 0.033817999 1 16777215
0.030646 -0.031471502 0.033465002 1 16777215
0.030506 -0.0305035 0.033085 1 16777215
0.030359 -0.0295415 0.032643002 1 16777215
0.030205 -0.0285815 0.032163002 1 16777215
0.030050002 -0.0276215 0.031675 1 16777215
0.029901002 -0.0266615 0.031210002 1 16777215
0.029746 -0.025702501 0.030673999 1 16777215
0.029599 -0.0247405 0.030242 1 16777215
0.029451001 -0.023776501 0.029785 1 16777215
0.029314 -0.0228015 0.029481001 1 16777215
0.029181 -0.021828501 0.029150002 1 16777215
0.02905 -0.0208515 0.028894 1 16777215
0.028934002 -0.0198645 0.028754 1 16777215
0.028809 -0.0188845 0.028530002 1 16777215
0.028694 -0.017894501 0.028436001 1 16777215
0.028578002 -0.016910501 0.028278999 1 16777215
0.028467 -0.0159215 0.028181002 1 16777215
0.028354 -0.0149315 0.028089002 1 16777215
0.028243002 -0.013942501 0.028009001 1 16777215
0.028126001 -0.0129525 0.027864002 1 16777215
0.028013 -0.0119655 0.027770001 1 16777215
0.02789 -0.010987501 0.027562 1 16777215
0.027778 -0.010003501 0.027453002 1 16777215
0.027658001 -0.0090225004 0.027279999 1 16777215
0.027533 -0.0080335001 0.027088001 1 16777215
0.027410001 -0.0070545003 0.026884999 1 16777215
0.027286001 -0.0060725003 0.026691999 1 16777215
0.027164999 -0.0050905002 0.026500002 1 16777215
0.027046001 -0.0041065002 0.026342999 1 16777215
0.026922001 -0.0031225001 0.026136 1 16777215
0.026798001 -0.0021425001 0.025927 1 16777215
0.026678 -0.0011614999 0.025756001 1 16777215
0.026558001 -0.00017850008 0.025563002 1 16777215
0.026433 0.00080149993 0.025345001 1 16777215
0.026318001 0.0017924998 0.025230002 1 16777215
0.026204001 0.0027775001 0.025121 1 16777215
0.026093001 0.0037684999 0.025042001 1 16777215
0.025981002 0.0047585005 0.024959002 1 16777215
0.025878999 0.0057575004 0.024959002 1 16777215
0.025783001 0.0067575006 0.025012001 1 16777215
0.025701001 0.0077705001 0.025230002 1 16777215
0.025624 0.0087865004 0.025485002 1 16777215
0.025559001 0.0098155001 0.025878999 1 16777215
0.025496 0.0108445 0.026289999 1 16777215
0.025442 0.0118695 0.026721999 1 16777215
0.025395 0.0129155 0.027334999 1 16777215
0.025356 0.0139585 0.027926002 1 16777215
0.025318 0.0149995 0.028561 1 16777215
0.025287 0.016052499 0.029258002 1 16777215
0.025256 0.017090499 0.029883001 1 16777215
0.025209 0.018136501 0.030497 1 16777215
0.025152002 0.0191755 0.031029999 1 16777215
0.032505002 -0.059683502 0.030412 1 16777215
0.032472 -0.058642503 0.031048 1 16777215
0.032428 -0.057602502 0.031636 1 16777215
0.032373 -0.056571502 0.032083999 1 16777215
0.032312002 -0.055540502 0.032527 1 16777215
0.032250002 -0.054513503 0.032922 1 16777215
0.032186002 -0.053494502 0.033256002 1 16777215
0.032116 -0.052472502 0.033573002 1 16777215
0.032044999 -0.051450502 0.033906002 1 16777215
0.031971 -0.050435502 0.034193002 1 16777215
0.031890001 -0.049420502 0.034384999 1 16777215
0.031812999 -0.048405502 0.034639001 1 16777215
0.031723 -0.047397502 0.034797002 1 16777215
0.031638 -0.046386503 0.034958001 1 16777215
0.031557001 -0.045376502 0.035146002 1 16777215
0.031466 -0.044370502 0.035259999 1 16777215
0.031367 -0.043373503 0.035291001 1 16777215
0.031266 -0.0423715 0.035337999 1 16777215
0.031172 -0.041371502 0.035399999 1 16777215
0.031071 -0.040372502 0.035417002 1 16777215
0.030964002 -0.039380502 0.03537 1 16777215
0.030854002 -0.0383895 0.035292 1 16777215
0.030739002 -0.0373975 0.035192002 1 16777215
0.030631002 -0.036406502 0.035130002 1 16777215
0.030513 -0.0354225 0.034972999 1 16777215
0.030390002 -0.034438502 0.034766 1 16777215
0.030258 -0.033467501 0.034479 1 16777215
0.030127 -0.032486502 0.034239002 1 16777215
0.029987 -0.031522501 0.033829 1 16777215
0.02984 -0.030555502 0.033418 1 16777215
0.029697999 -0.0295895 0.033020001 1 16777215
0.029546 -0.0286275 0.032558002 1 16777215
0.029399 -0.0276605 0.032145001 1 16777215
0.029244002 -0.0267085 0.031605002 1 16777215
0.029095002 -0.025744502 0.031130999 1 16777215
0.028942 -0.024784502 0.030668002 1 16777215
0.0288 -0.0238185 0.030257002 1 16777215
0.028659999 -0.0228475 0.029877 1 16777215
0.028529 -0.0218715 0.029607002 1 16777215
0.028398 -0.0208955 0.029320002 1 16777215
0.028270001 -0.019918501 0.029084999 1 16777215
0.02815 -0.018932501 0.028925002 1 16777215
0.028032999 -0.0179465 0.028783999 1 16777215
0.027924001 -0.0169555 0.028700002 1 16777215
0.027801 -0.0159715 0.028529 1 16777215
0.027689001 -0.0149835 0.028434999 1 16777215
0.027575999 -0.013989501 0.028321002 1 16777215
0.027464001 -0.013001501 0.028225999 1 16777215
0.027347 -0.0120185 0.028081 1 16777215
0.027223 -0.011041501 0.027879 1 16777215
0.027104001 -0.010061501 0.027717002 1 16777215
0.026987001 -0.0090725003 0.027577002 1 16777215
0.026875 -0.0080845002 0.027484 1 16777215
0.026746999 -0.0071045002 0.027243 1 16777215
0.026627 -0.0061205002 0.027054999 1 16777215
0.026504001 -0.0051385001 0.026864 1 16777215
0.026386 -0.0041565001 0.026702002 1 16777215
0.02626 -0.0031725001 0.026514001 1 16777215
0.026142001 -0.0021885 0.026338 1 16777215
0.026019 -0.0012085 0.026133001 1 16777215
0.025898 -0.0002255002 0.025958002 1 16777215
0.02579 0.00076350011 0.025896002 1 16777215
0.025667001 0.0017494997 0.025703002 1 16777215
0.025555 0.0027385 0.025625002 1 16777215
0.025444999 0.0037265001 0.025531001 1 16777215
0.025334001 0.0047195004 0.025453001 1 16777215
0.025232 0.0057185004 0.025467001 1 16777215
0.025143001 0.0067255003 0.025594 1 16777215
0.025063001 0.0077395001 0.025832001 1 16777215
0.024987999 0.0087534999 0.026071999 1 16777215
0.024925999 0.0097785005 0.026482999 1 16777215
0.024861 0.0108065 0.026848 1 16777215
0.024814 0.0118445 0.027387999 1 16777215
0.024775 0.0128845 0.028003 1 16777215
0.024733 0.0139295 0.028608002 1 16777215
0.02469 0.0149685 0.029181 1 16777215
0.024664 0.0160225 0.029945001 1 16777215
0.024624001 0.017066501 0.030560002 1 16777215
0.024590001 0.018112499 0.031231001 1 16777215
0.024523001 0.019135501 0.031580001 1 16777215
0.024160001 0.0231595 0.032054 1 16777215
0.031847 -0.059729502 0.030836999 1 16777215
0.031807002 -0.058691502 0.031412002 1 16777215
0.031754002 -0.057659503 0.031922001 1 16777215
0.031707 -0.056621503 0.032442 1 16777215
0.031651001 -0.055591501 0.032873001 1 16777215
0.031589001 -0.054566503 0.033270001 1 16777215
0.031522002 -0.053540502 0.033635002 1 16777215
0.031451002 -0.052522503 0.033937 1 16777215
0.031374 -0.051503502 0.034223001 1 16777215
0.031303 -0.050486501 0.034492999 1 16777215
0.031219002 -0.049471501 0.034712002 1 16777215
0.03114 -0.048462503 0.034905002 1 16777215
0.031064 -0.047445502 0.035174999 1 16777215
0.030977 -0.046437502 0.035316002 1 16777215
0.030882999 -0.045433503 0.035399001 1 16777215
0.030792002 -0.044430502 0.035509001 1 16777215
0.030700002 -0.043426502 0.035618 1 16777215
0.030598 -0.042425502 0.035618 1 16777215
0.030499 -0.041426502 0.035684999 1 16777215
0.030397002 -0.040431499 0.035665002 1 16777215
0.03029 -0.039435502 0.035634 1 16777215
0.030181002 -0.038443502 0.035572 1 16777215
0.030073002 -0.0374525 0.035525002 1 16777215
0.029957 -0.0364605 0.035413999 1 16777215
0.02984 -0.035476502 0.035254002 1 16777215
0.029723 -0.0344925 0.035098001 1 16777215
0.029596999 -0.0335145 0.034874 1 16777215
0.029459 -0.032546502 0.034526002 1 16777215
0.029320002 -0.031572502 0.034161001 1 16777215
0.029180001 -0.030603502 0.033797 1 16777215
0.029035002 -0.0296355 0.033399999 1 16777215
0.028884999 -0.0286755 0.032921001 1 16777215
0.028737999 -0.0277135 0.032489002 1 16777215
0.028585002 -0.0267545 0.032000002 1 16777215
0.028434999 -0.0257915 0.031536002 1 16777215
0.028285 -0.024829499 0.031079002 1 16777215
0.028142001 -0.0238625 0.030683 1 16777215
0.028002001 -0.0228935 0.030317999 1 16777215
0.027866 -0.0219205 0.029986002 1 16777215
0.027734 -0.0209445 0.0297 1 16777215
0.02761 -0.019964501 0.029491 1 16777215
0.027487 -0.018981501 0.029304001 1 16777215
0.027371 -0.017995501 0.029162001 1 16777215
0.027255001 -0.0170075 0.029033002 1 16777215
0.027138 -0.016021501 0.028891999 1 16777215
0.027026001 -0.0150265 0.028793 1 16777215
0.026906 -0.0140465 0.028638002 1 16777215
0.026792999 -0.013059501 0.028526999 1 16777215
0.026673 -0.012075501 0.028352 1 16777215
0.026554 -0.0110945 0.028193999 1 16777215
0.026438002 -0.0101105 0.028065 1 16777215
0.026321001 -0.0091255 0.027925 1 16777215
0.026201 -0.0081435004 0.027763002 1 16777215
0.026080001 -0.0071585001 0.027573999 1 16777215
0.025965001 -0.0061695003 0.027430002 1 16777215
0.025839999 -0.0051895003 0.027226001 1 16777215
0.025717001 -0.0042075003 0.027019002 1 16777215
0.025600001 -0.0032225 0.026872002 1 16777215
0.02548 -0.0022384999 0.026717 1 16777215
0.025356 -0.0012555001 0.026508 1 16777215
0.025241001 -0.00027150009 0.026384 1 16777215
0.025127999 0.00071949977 0.026289999 1 16777215
0.025010999 0.0017045001 0.026144002 1 16777215
0.024902999 0.0026984997 0.026082002 1 16777215
0.024791 0.0036864998 0.025988001 1 16777215
0.024682 0.0046805004 0.025940001 1 16777215
0.024585001 0.0056795003 0.025988001 1 16777215
0.024493001 0.0066855 0.026082002 1 16777215
0.024416 0.0077005001 0.026338 1 16777215
0.024350001 0.0087235002 0.026702002 1 16777215
0.024288001 0.0097475005 0.027097002 1 16777215
0.024229001 0.0107775 0.027523 1 16777215
0.024174999 0.0118145 0.028019 1 16777215
0.024132 0.0128535 0.028591 1 16777215
0.024091002 0.0138965 0.029194999 1 16777215
0.024066001 0.0149505 0.029940002 1 16777215
0.024032 0.015991502 0.030606002 1 16777215
0.023998 0.017043501 0.031288002 1 16777215
0.023946 0.018074501 0.031783 1 16777215
0.023885 0.019105501 0.032194 1 16777215
0.023804002 0.020116501 0.032400999 1 16777215
0.023717999 0.021125499 0.032558002 1 16777215
0.023616999 0.022124499 0.032574002 1 16777215
0.02352 0.023125499 0.032636002 1 16777215
0.031219002 -0.060829502 0.030503999 1 16777215
0.031188 -0.059782501 0.031187002 1 16777215
0.031148002 -0.058739502 0.031789999 1 16777215
0.031095002 -0.057706501 0.032299999 1 16777215
0.031040002 -0.056677502 0.032744002 1 16777215
0.030979 -0.055646501 0.03317 1 16777215
0.030917 -0.054621503 0.033550002 1 16777215
0.030848 -0.053599503 0.033883002 1 16777215
0.030783001 -0.052578501 0.034235999 1 16777215
0.030700002 -0.051563501 0.034456 1 16777215
0.030629002 -0.050545502 0.034743 1 16777215
0.030551001 -0.049530502 0.034982 1 16777215
0.030475002 -0.048515502 0.035236999 1 16777215
0.030388001 -0.047505502 0.035394002 1 16777215
0.030303001 -0.046497501 0.035553999 1 16777215
0.030212 -0.045488503 0.035696 1 16777215
0.030119002 -0.044485502 0.035794001 1 16777215
0.030025002 -0.043486502 0.035840999 1 16777215
0.029926002 -0.0424865 0.035904001 1 16777215
0.029825002 -0.041488502 0.035904001 1 16777215
0.029724002 -0.040487502 0.035950001 1 16777215
0.029616002 -0.0394965 0.035888001 1 16777215
0.029507 -0.0385045 0.035824999 1 16777215
0.029399 -0.037511501 0.035773002 1 16777215
0.029290002 -0.0365205 0.035696 1 16777215
0.029167 -0.0355375 0.035521999 1 16777215
0.029049002 -0.0345525 0.035347 1 16777215
0.028926 -0.0335695 0.035158001 1 16777215
0.028787002 -0.032601502 0.034789 1 16777215
0.028648 -0.0316265 0.034456 1 16777215
0.028508 -0.030658502 0.034077 1 16777215
0.028365999 -0.029694501 0.033681002 1 16777215
0.028215 -0.028729502 0.033217002 1 16777215
0.028068 -0.0277685 0.032775 1 16777215
0.027917001 -0.0268065 0.032317001 1 16777215
0.027770001 -0.025844499 0.031869002 1 16777215
0.027621999 -0.024880501 0.031427 1 16777215
0.027479 -0.023912501 0.031031001 1 16777215
0.027343001 -0.022939499 0.030696999 1 16777215
0.027208 -0.0219675 0.030396 1 16777215
0.027077001 -0.020992501 0.030108999 1 16777215
0.026949 -0.020012502 0.029855002 1 16777215
0.026825 -0.0190295 0.029665999 1 16777215
0.026704 -0.0180475 0.029474001 1 16777215
0.026589001 -0.0170615 0.029364001 1 16777215
0.026473001 -0.0160725 0.02922 1 16777215
0.026356 -0.015085501 0.029079001 1 16777215
0.026236001 -0.0141075 0.028902002 1 16777215
0.02612 -0.0131195 0.028777 1 16777215
0.026004001 -0.0121325 0.028636001 1 16777215
0.025884001 -0.011153501 0.028476 1 16777215
0.025763001 -0.0101715 0.028298002 1 16777215
0.025646999 -0.0091855004 0.028158002 1 16777215
0.025527 -0.0082035009 0.02798 1 16777215
0.02541 -0.0072125001 0.027841002 1 16777215
0.025290001 -0.0062275003 0.027667001 1 16777215
0.025171001 -0.0052435002 0.027538002 1 16777215
0.025051001 -0.0042595002 0.027366001 1 16777215
0.024935 -0.0032735001 0.027221002 1 16777215
0.024811 -0.0022924999 0.027017001 1 16777215
0.024693999 -0.0013095001 0.026856001 1 16777215
0.024575001 -0.00032250024 0.026714999 1 16777215
0.024462 0.00066650007 0.026617002 1 16777215
0.024353001 0.0016574999 0.026539002 1 16777215
0.024242001 0.0026495 0.026461001 1 16777215
0.024135999 0.0036434997 0.02643 1 16777215
0.024032 0.0046415003 0.026429001 1 16777215
0.023939 0.0056415005 0.026524 1 16777215
0.023846 0.0066475002 0.026601002 1 16777215
0.023772001 0.0076625003 0.026872002 1 16777215
0.023707001 0.0086865006 0.027252 1 16777215
0.023639999 0.0097085005 0.027600002 1 16777215
0.023586001 0.0107445 0.028080001 1 16777215
0.023537001 0.0117825 0.0286 1 16777215
0.023494001 0.0128225 0.029204 1 16777215
0.023459001 0.0138675 0.029839002 1 16777215
0.023428001 0.014914501 0.030540999 1 16777215
0.023396 0.015966501 0.031238999 1 16777215
0.023361001 0.017012499 0.031890001 1 16777215
0.023304 0.018042501 0.032349002 1 16777215
0.023237001 0.019065499 0.032682002 1 16777215
0.023157001 0.020078499 0.032921001 1 16777215
0.023068 0.021086499 0.033046 1 16777215
0.02297 0.022085499 0.033077002 1 16777215
0.022882 0.023093499 0.033239 1 16777215
0.022816001 0.0241195 0.033603001 1 16777215
-0.0018130001 -0.020450501 0.025235999 1 16777215
-0.0019319998 -0.019461501 0.025111999 1 16777215
0.030560002 -0.060877502 0.030898001 1 16777215
0.030522 -0.059832502 0.031550001 1 16777215
0.030482002 -0.058789503 0.032132 1 16777215
0.030425999 -0.057761502 0.032581002 1 16777215
0.030367002 -0.056730501 0.033023 1 16777215
0.030311 -0.055701502 0.033470999 1 16777215
0.030243002 -0.054679502 0.03382 1 16777215
0.030174002 -0.053657502 0.034169 1 16777215
0.030104 -0.052635502 0.034487002 1 16777215
0.030033 -0.051618502 0.034756999 1 16777215
0.029956002 -0.050600503 0.035027001 1 16777215
0.029876001 -0.049587503 0.035231002 1 16777215
0.029794 -0.048575502 0.035439 1 16777215
0.029709 -0.047562502 0.035645999 1 16777215
0.029624 -0.046556503 0.035803001 1 16777215
0.029537 -0.045548502 0.035932999 1 16777215
0.029438 -0.044551503 0.035964999 1 16777215
0.029345002 -0.043546502 0.036074001 1 16777215
0.029251002 -0.0425415 0.036137 1 16777215
0.029150002 -0.0415475 0.036153 1 16777215
0.029043 -0.0405505 0.036122002 1 16777215
0.028942 -0.0395515 0.036137 1 16777215
0.028833002 -0.0385595 0.036075 1 16777215
0.028721999 -0.037573501 0.035980999 1 16777215
0.028609 -0.036576502 0.035918001 1 16777215
0.028492 -0.035598502 0.035741001 1 16777215
0.028375 -0.0346095 0.035595 1 16777215
0.028246 -0.033632502 0.035346001 1 16777215
0.028115001 -0.032656502 0.035075001 1 16777215
0.027975 -0.031687502 0.034711 1 16777215
0.027832001 -0.0307195 0.034329001 1 16777215
0.027689001 -0.029751502 0.033914 1 16777215
0.027541 -0.0287905 0.033472002 1 16777215
0.027391002 -0.0278285 0.033013001 1 16777215
0.027246 -0.0268635 0.032597002 1 16777215
0.027100001 -0.025895501 0.032184999 1 16777215
0.026953001 -0.024931502 0.031759001 1 16777215
0.026815999 -0.023962501 0.031392999 1 16777215
0.026677001 -0.022990501 0.031045001 1 16777215
0.026541 -0.0220185 0.030707002 1 16777215
0.026407 -0.0210455 0.030425001 1 16777215
0.026282001 -0.0200665 0.030187 1 16777215
0.026155001 -0.0190835 0.029979002 1 16777215
0.026038 -0.0180995 0.029807001 1 16777215
0.025919002 -0.017114501 0.029661 1 16777215
0.025799001 -0.0161305 0.029488001 1 16777215
0.025679 -0.0151465 0.029312 1 16777215
0.025568999 -0.0141585 0.029235002 1 16777215
0.025442 -0.013179501 0.028995 1 16777215
0.025326001 -0.0121905 0.028870001 1 16777215
0.025209 -0.011208501 0.028724 1 16777215
0.025088999 -0.0102315 0.028553002 1 16777215
0.024970001 -0.0092465002 0.028391 1 16777215
0.024853 -0.0082614999 0.028235 1 16777215
0.024734002 -0.0072715003 0.028094999 1 16777215
0.024617001 -0.0062855002 0.027949002 1 16777215
0.024500001 -0.0052995002 0.027807999 1 16777215
0.02438 -0.0043155001 0.027631 1 16777215
0.024264 -0.0033275001 0.027522001 1 16777215
0.024144001 -0.0023445003 0.027345002 1 16777215
0.024027999 -0.0013595 0.027203001 1 16777215
0.023912001 -0.00037250016 0.027074002 1 16777215
0.023796 0.00061549991 0.026964001 1 16777215
0.023684001 0.0016064998 0.026870999 1 16777215
0.023579001 0.0025995001 0.026838999 1 16777215
0.023478001 0.0035974998 0.026854999 1 16777215
0.023381 0.0045955004 0.026902001 1 16777215
0.023281001 0.0055955006 0.026932999 1 16777215
0.023198999 0.0066095004 0.027120002 1 16777215
0.023125 0.0076245004 0.027396001 1 16777215
0.023060001 0.0086524999 0.027791001 1 16777215
0.022996999 0.0096775005 0.028173 1 16777215
0.022950999 0.0107155 0.028708 1 16777215
0.022894001 0.0117455 0.029172 1 16777215
0.022858001 0.0127905 0.029823001 1 16777215
0.022819001 0.0138365 0.030441999 1 16777215
0.022785001 0.014883501 0.031109001 1 16777215
0.022746 0.015927501 0.031744 1 16777215
0.022716001 0.016974501 0.032442 1 16777215
0.022661 0.018005501 0.032915 1 16777215
0.022583 0.019024499 0.033155002 1 16777215
0.022505 0.0200365 0.033394001 1 16777215
0.022413 0.0210425 0.033503 1 16777215
0.022327 0.0220525 0.03365 1 16777215
0.022251001 0.023070499 0.033934001 1 16777215
0.022193 0.024099499 0.034378 1 16777215
-0.0020690002 -0.018485501 0.024834 1 16777215
-0.0021799998 -0.0174955 0.024734002 1 16777215
-0.0023130002 -0.0165195 0.024470001 1 16777215
-0.0024330001 -0.015538501 0.024277002 1 16777215
0.029895 -0.060925502 0.031272002 1 16777215
0.029855002 -0.059887502 0.031846002 1 16777215
0.029809002 -0.058849502 0.032402001 1 16777215
0.029755 -0.057816502 0.032896999 1 16777215
0.029699001 -0.056785502 0.033325002 1 16777215
0.029631 -0.055760503 0.033705 1 16777215
0.029568002 -0.054738503 0.034053002 1 16777215
0.029505 -0.053712502 0.034433 1 16777215
0.029430002 -0.052695502 0.034704 1 16777215
0.029352002 -0.051677503 0.034975 1 16777215
0.029281002 -0.050662503 0.035245001 1 16777215
0.029198002 -0.049649503 0.035452999 1 16777215
0.029119 -0.048635501 0.035688002 1 16777215
0.029031999 -0.047626503 0.035834 1 16777215
0.028949 -0.046618503 0.036006 1 16777215
0.028855 -0.045612503 0.036104999 1 16777215
0.028763 -0.044607501 0.036214001 1 16777215
0.028663002 -0.043608502 0.036261 1 16777215
0.028562002 -0.0426105 0.036277 1 16777215
0.028468002 -0.041610502 0.036323 1 16777215
0.028363001 -0.0406125 0.036323 1 16777215
0.028262001 -0.0396185 0.036323 1 16777215
0.028156999 -0.0386215 0.036292002 1 16777215
0.028039999 -0.0376365 0.036166999 1 16777215
0.027933002 -0.036638502 0.036120001 1 16777215
0.027813001 -0.0356545 0.035959002 1 16777215
0.027692001 -0.034675501 0.035772 1 16777215
0.027564 -0.033694502 0.035517 1 16777215
0.027429 -0.032723501 0.03523 1 16777215
0.027293 -0.0317505 0.034880999 1 16777215
0.027157001 -0.0307745 0.034549002 1 16777215
0.027015001 -0.029810499 0.034184001 1 16777215
0.026867 -0.0288455 0.033736002 1 16777215
0.026721001 -0.0278835 0.033309001 1 16777215
0.026577 -0.0269145 0.032914001 1 16777215
0.026434001 -0.025950501 0.032501001 1 16777215
0.026287001 -0.0249855 0.03207 1 16777215
0.026143 -0.0240205 0.031675 1 16777215
0.026011001 -0.0230445 0.031373002 1 16777215
0.025876001 -0.022069501 0.031071 1 16777215
0.025740001 -0.021096501 0.030738 1 16777215
0.025616001 -0.020116501 0.030517999 1 16777215
0.025489001 -0.0191365 0.030294999 1 16777215
0.025365001 -0.018156501 0.030087002 1 16777215
0.025248 -0.0171725 0.029931001 1 16777215
0.025125001 -0.0161865 0.029754002 1 16777215
0.025008 -0.0152045 0.029580999 1 16777215
0.024891 -0.0142205 0.029436 1 16777215
0.024772 -0.0132285 0.029296 1 16777215
0.024651 -0.012250501 0.029103 1 16777215
0.024530999 -0.0112695 0.028930999 1 16777215
0.024411 -0.0102935 0.028755002 1 16777215
0.024292 -0.0093075 0.028613999 1 16777215
0.024172001 -0.0083234999 0.028437 1 16777215
0.02406 -0.0073295003 0.028343 1 16777215
0.023936 -0.0063475003 0.02815 1 16777215
0.023822 -0.0053615002 0.028026 1 16777215
0.023707001 -0.0043695001 0.027915001 1 16777215
0.023586001 -0.0033895001 0.027709 1 16777215
0.023469999 -0.0024015 0.027593002 1 16777215
0.023351001 -0.0014175 0.027437001 1 16777215
0.023242 -0.0004265001 0.027373999 1 16777215
0.02313 0.00056149997 0.027275 1 16777215
0.023018001 0.0015535001 0.027213 1 16777215
0.022911999 0.0025444999 0.027151 1 16777215
0.022815 0.0035485001 0.027213 1 16777215
0.022718001 0.0045495005 0.027263999 1 16777215
0.022624999 0.0055534998 0.027359001 1 16777215
0.022545001 0.0065695001 0.027598001 1 16777215
0.022477999 0.0075865006 0.027931001 1 16777215
0.022409 0.0086085005 0.028264999 1 16777215
0.022358 0.0096445 0.028755002 1 16777215
0.022304 0.0106765 0.029231999 1 16777215
0.022268999 0.0117225 0.029899999 1 16777215
0.022212001 0.0127525 0.030343 1 16777215
0.022181001 0.0137985 0.031024002 1 16777215
0.022141 0.0148445 0.031660002 1 16777215
0.022107001 0.015890501 0.032310002 1 16777215
0.022057001 0.016928501 0.032852001 1 16777215
0.022006001 0.017964501 0.033341002 1 16777215
0.021937001 0.018986501 0.033674002 1 16777215
0.021855 0.0199975 0.033883002 1 16777215
0.021767002 0.0210055 0.034022 1 16777215
0.021693001 0.022023499 0.034309 1 16777215
0.021641999 0.0230585 0.034804001 1 16777215
0.021595001 0.0240945 0.035339002 1 16777215
-0.0025599999 -0.0145575 0.024057001 1 16777215
-0.0026810002 -0.0135765 0.023848001 1 16777215
-0.0028090002 -0.0126035 0.023595002 1 16777215
-0.0029420005 -0.0116285 0.023309 1 16777215
-0.0030660005 -0.010650501 0.023084 1 16777215
-0.0032029999 -0.0096745007 0.022787999 1 16777215
0.029266 -0.062027503 0.030907001 1 16777215
0.029229 -0.060980503 0.031571999 1 16777215
0.029182002 -0.059944503 0.032129999 1 16777215
0.029136002 -0.058907501 0.032651 1 16777215
0.02908 -0.057878502 0.033100002 1 16777215
0.029024001 -0.056844503 0.033558 1 16777215
0.028964002 -0.055816501 0.033968002 1 16777215
0.028895002 -0.054794502 0.034322001 1 16777215
0.028825 -0.053772502 0.034639999 1 16777215
0.028754 -0.052759502 0.034921002 1 16777215
0.028678 -0.051739503 0.035192002 1 16777215
